ply
format ascii 1.0
element vertex 1061
property float x
property float y
property float z
property float nx
property float ny
property float nz
property uchar red
property uchar green
property uchar blue
end_header
0.853982 -1.27681 -0.0563082 0 0 0 140 139 137
0.869472 -1.27506 -0.0394503 0 0 0 130 130 130
0.889494 -1.28013 -0.0227144 0 0 0 127 127 125
0.298313 -0.00435447 -1.05792 0 0 0 175 173 174
0.310033 -0.00434993 -1.04478 0 0 0 176 174 175
0.321056 -0.00433631 -1.02952 0 0 0 174 174 174
0.332003 -0.00432268 -1.01433 0 0 0 177 177 177
0.342152 -0.00429998 -0.997108 0 0 0 179 177 180
0.352923 -0.00428636 -0.982094 0 0 0 181 179 180
0.363233 -0.0042682 -0.966128 0 0 0 180 180 180
0.373841 -0.00425457 -0.951277 0 0 0 178 178 180
0.383139 -0.00422733 -0.933494 0 0 0 177 177 177
0.394831 -0.00422733 -0.921802 0 0 0 178 178 178
0.404776 -0.00420917 -0.9062 0 0 0 178 178 178
0.413273 -0.00417738 -0.887803 0 0 0 176 176 178
0.423904 -0.0041683 -0.874345 0 0 0 174 172 175
0.433061 -0.0041456 -0.858116 0 0 0 173 171 172
0.442579 -0.00412744 -0.842941 0 0 0 172 172 167
0.452996 -0.00411835 -0.829696 0 0 0 45 45 45
0.464386 -0.00411835 -0.818306 0 0 0 74 73 68
0.473678 -0.00410019 -0.803356 0 0 0 76 70 72
0.483944 -0.00409111 -0.790262 0 0 0 74 69 64
0.491412 -0.00405933 -0.772895 0 0 0 67 66 64
0.582842 -0.0046042 -0.851171 0 0 0 142 143 145
2.61295 -0.0124686 -1.27048 0 0 0 195 203 214
2.42762 -0.0114333 -1.13337 0 0 0 201 210 219
2.26977 -0.0105524 -1.01686 0 0 0 207 216 221
1.42754 -0.0064704 -0.587715 0 0 0 108 109 111
1.35313 -0.00605721 -0.533431 0 0 0 109 109 111
1.28054 -0.00566217 -0.482982 0 0 0 105 104 111
1.23695 -0.00540335 -0.44596 0 0 0 109 111 110
1.18667 -0.00512184 -0.408559 0 0 0 106 107 109
1.1508 -0.00490843 -0.37796 0 0 0 101 101 108
1.10191 -0.00464507 -0.344834 0 0 0 103 108 112
0.298313 -0.0213811 -1.05792 0 0 0 176 174 175
0.310033 -0.0213588 -1.04478 0 0 0 176 174 175
0.321056 -0.0212919 -1.02952 0 0 0 171 171 171
0.330957 -0.0211581 -1.01113 0 0 0 173 173 175
0.341791 -0.0210912 -0.996055 0 0 0 180 180 182
0.352923 -0.0210466 -0.982094 0 0 0 184 184 184
0.363233 -0.0209575 -0.966128 0 0 0 180 180 182
0.373841 -0.0208906 -0.951277 0 0 0 178 178 180
0.383962 -0.0208014 -0.935499 0 0 0 179 177 180
0.394831 -0.0207568 -0.921802 0 0 0 176 176 176
0.404776 -0.0206676 -0.9062 0 0 0 178 178 178
0.413273 -0.0205116 -0.887803 0 0 0 174 174 174
0.423442 -0.0204447 -0.873392 0 0 0 175 175 175
0.432112 -0.0203109 -0.856237 0 0 0 171 171 171
0.442579 -0.0202663 -0.842941 0 0 0 173 172 171
0.452996 -0.0202217 -0.829696 0 0 0 59 57 58
0.46285 -0.0201548 -0.815599 0 0 0 67 66 61
0.473678 -0.0201325 -0.803356 0 0 0 74 68 68
0.483944 -0.020088 -0.790262 0 0 0 74 68 68
0.491412 -0.0199319 -0.772895 0 0 0 71 66 62
0.580543 -0.0225181 -0.847813 0 0 0 140 146 142
2.57108 -0.0602416 -1.25012 0 0 0 199 207 218
2.42762 -0.0561392 -1.13337 0 0 0 204 212 223
2.25512 -0.0514796 -1.0103 0 0 0 208 217 226
1.42053 -0.0316146 -0.584828 0 0 0 112 112 114
1.35313 -0.0297418 -0.533431 0 0 0 108 109 111
1.30005 -0.0282257 -0.490341 0 0 0 108 109 111
1.2276 -0.0263306 -0.442587 0 0 0 107 108 110
1.18247 -0.0250598 -0.40711 0 0 0 102 102 112
1.14122 -0.0239004 -0.374813 0 0 0 99 101 98
1.0976 -0.0227188 -0.343486 0 0 0 106 106 108
0.299247 -0.0385278 -1.06123 0 0 0 177 177 177
0.310033 -0.0383676 -1.04478 0 0 0 178 178 180
0.320383 -0.0381674 -1.02736 0 0 0 170 170 172
0.330608 -0.0379671 -1.01007 0 0 0 171 171 171
0.341791 -0.037887 -0.996055 0 0 0 172 170 171
0.352923 -0.0378069 -0.982094 0 0 0 179 179 181
0.363233 -0.0376467 -0.966128 0 0 0 178 178 180
0.373841 -0.0375266 -0.951277 0 0 0 179 179 181
0.383962 -0.0373664 -0.935499 0 0 0 178 178 180
0.394831 -0.0372863 -0.921802 0 0 0 176 176 176
0.403903 -0.037046 -0.904245 0 0 0 178 178 180
0.412824 -0.0368057 -0.886838 0 0 0 177 177 177
0.423442 -0.0367256 -0.873392 0 0 0 176 176 176
0.434958 -0.0367256 -0.861876 0 0 0 175 175 175
0.443553 -0.0364853 -0.844796 0 0 0 174 173 171
0.452996 -0.0363251 -0.829696 0 0 0 57 56 61
0.46285 -0.0362049 -0.815599 0 0 0 72 66 66
0.472629 -0.0360848 -0.801577 0 0 0 72 71 69
0.482333 -0.0359646 -0.787631 0 0 0 69 63 63
0.490862 -0.0357644 -0.772031 0 0 0 64 64 58
0.580543 -0.0404502 -0.847813 0 0 0 144 146 146
2.59107 -0.109055 -1.25984 0 0 0 197 210 219
2.42666 -0.100805 -1.13292 0 0 0 202 214 224
2.22484 -0.0912333 -0.996736 0 0 0 209 217 228
1.42053 -0.0567905 -0.584828 0 0 0 112 112 114
1.34197 -0.0529858 -0.529032 0 0 0 108 110 106
1.28054 -0.049942 -0.482982 0 0 0 112 113 115
1.23176 -0.0474589 -0.444086 0 0 0 104 105 107
1.18667 -0.0451761 -0.408559 0 0 0 101 102 104
1.13909 -0.0428532 -0.374114 0 0 0 101 102 104
1.0976 -0.0408107 -0.343486 0 0 0 104 105 107
0.298313 -0.0554343 -1.05792 0 0 0 176 176 176
0.309062 -0.0552031 -1.04151 0 0 0 175 175 177
0.320047 -0.0550297 -1.02628 0 0 0 175 175 175
0.330608 -0.0547984 -1.01007 0 0 0 170 170 170
0.341791 -0.0546828 -0.996055 0 0 0 172 172 172
0.352923 -0.0545672 -0.982094 0 0 0 180 180 182
0.363233 -0.054336 -0.966128 0 0 0 180 180 182
0.373841 -0.0541626 -0.951277 0 0 0 179 179 179
0.383962 -0.0539314 -0.935499 0 0 0 179 179 179
0.394831 -0.0538158 -0.921802 0 0 0 177 177 179
0.403466 -0.0534111 -0.903267 0 0 0 178 177 183
0.412824 -0.0531221 -0.886838 0 0 0 178 178 178
0.423442 -0.0530065 -0.873392 0 0 0 176 176 176
0.433061 -0.0527753 -0.858116 0 0 0 176 176 178
0.442579 -0.0525441 -0.842941 0 0 0 174 173 178
0.452996 -0.0524285 -0.829696 0 0 0 54 52 53
0.46285 -0.052255 -0.815599 0 0 0 69 68 63
0.473678 -0.0521972 -0.803356 0 0 0 74 68 68
0.483407 -0.0520238 -0.789385 0 0 0 67 66 64
0.490862 -0.0516192 -0.772031 0 0 0 58 57 55
0.582267 -0.0585557 -0.850331 0 0 0 142 147 151
2.7841 -0.17139 -1.40904 0 0 0 192 204 214
2.57108 -0.156187 -1.25012 0 0 0 198 210 222
2.4093 -0.144453 -1.12482 0 0 0 201 214 223
2.23852 -0.132487 -1.00286 0 0 0 207 220 229
1.42053 -0.0819664 -0.584828 0 0 0 112 112 114
1.34704 -0.076764 -0.531032 0 0 0 106 106 108
1.29595 -0.072949 -0.488791 0 0 0 107 107 109
1.23176 -0.068498 -0.444086 0 0 0 102 102 102
1.1751 -0.0645674 -0.404575 0 0 0 102 103 105
1.13909 -0.0618506 -0.374114 0 0 0 104 105 107
1.0976 -0.0589025 -0.343486 0 0 0 102 103 105
0.298313 -0.0724609 -1.05792 0 0 0 174 174 174
0.30971 -0.0723098 -1.04369 0 0 0 172 172 172
0.320047 -0.071932 -1.02628 0 0 0 173 173 173
0.330608 -0.0716297 -1.01007 0 0 0 172 172 172
0.341791 -0.0714786 -0.996055 0 0 0 171 171 171
0.352923 -0.0713275 -0.982094 0 0 0 181 181 183
0.363233 -0.0710253 -0.966128 0 0 0 181 181 183
0.372644 -0.0705719 -0.948232 0 0 0 180 180 182
0.383962 -0.0704964 -0.935499 0 0 0 178 178 180
0.394407 -0.0702697 -0.920812 0 0 0 178 178 180
0.404339 -0.0699674 -0.905222 0 0 0 178 178 180
0.412824 -0.0694385 -0.886838 0 0 0 176 176 176
0.423442 -0.0692874 -0.873392 0 0 0 174 174 176
0.433061 -0.0689852 -0.858116 0 0 0 175 175 177
0.442579 -0.0686829 -0.842941 0 0 0 174 173 180
0.452996 -0.0685318 -0.829696 0 0 0 59 57 58
0.46285 -0.0683052 -0.815599 0 0 0 73 72 70
0.472105 -0.0680029 -0.800687 0 0 0 69 68 66
0.483407 -0.0680029 -0.789385 0 0 0 72 68 59
0.490862 -0.067474 -0.772031 0 0 0 60 59 57
0.580543 -0.0763144 -0.847813 0 0 0 139 144 147
2.55015 -0.202498 -1.23994 0 0 0 201 213 225
2.4093 -0.188821 -1.12482 0 0 0 202 214 226
2.25414 -0.17439 -1.00986 0 0 0 207 219 231
1.34197 -0.0999643 -0.529032 0 0 0 108 109 111
1.28054 -0.0942218 -0.482982 0 0 0 110 108 111
1.23176 -0.0895372 -0.444086 0 0 0 103 104 106
1.1751 -0.0843992 -0.404575 0 0 0 104 105 107
1.13909 -0.0808479 -0.374114 0 0 0 102 103 105
1.09437 -0.0767677 -0.342474 0 0 0 106 107 109
0.298936 -0.0896741 -1.06012 0 0 0 234 235 239
0.308739 -0.0890209 -1.04042 0 0 0 178 178 180
0.320047 -0.0888343 -1.02628 0 0 0 176 176 178
0.330608 -0.088461 -1.01007 0 0 0 176 176 176
0.341068 -0.0880878 -0.993949 0 0 0 176 176 176
0.351802 -0.0878079 -0.978973 0 0 0 175 175 177
0.363233 -0.0877145 -0.966128 0 0 0 172 172 172
0.373841 -0.0874346 -0.951277 0 0 0 172 172 172
0.38355 -0.086968 -0.934497 0 0 0 173 173 173
0.394407 -0.0867814 -0.920812 0 0 0 170 170 170
0.404339 -0.0864082 -0.905222 0 0 0 171 171 171
0.412824 -0.085755 -0.886838 0 0 0 167 167 167
0.423442 -0.0855683 -0.873392 0 0 0 171 171 171
0.433061 -0.0851951 -0.858116 0 0 0 168 166 166
0.442579 -0.0848218 -0.842941 0 0 0 166 165 172
0.452996 -0.0846352 -0.829696 0 0 0 53 51 54
0.462338 -0.084262 -0.814697 0 0 0 70 63 64
0.472105 -0.083982 -0.800687 0 0 0 70 69 67
0.481796 -0.0837021 -0.786754 0 0 0 72 65 67
0.489763 -0.0831422 -0.770301 0 0 0 64 63 61
0.580543 -0.0942465 -0.847813 0 0 0 142 148 147
2.7841 -0.276674 -1.40904 0 0 0 192 205 221
2.57013 -0.252039 -1.24966 0 0 0 201 213 225
2.37363 -0.229737 -1.10816 0 0 0 204 216 228
2.23852 -0.213874 -1.00286 0 0 0 208 220 232
1.46504 -0.138197 -0.62941 0 0 0 34 26 81
1.41952 -0.132225 -0.584416 0 0 0 111 112 114
1.34096 -0.12336 -0.528632 0 0 0 107 108 110
1.28054 -0.116362 -0.482982 0 0 0 107 106 112
1.2224 -0.109736 -0.440713 0 0 0 106 104 107
1.1751 -0.104231 -0.404575 0 0 0 103 104 106
1.13909 -0.0998453 -0.374114 0 0 0 103 104 109
1.09437 -0.0948064 -0.342474 0 0 0 102 103 105
0.298936 -0.106736 -1.06012 0 0 0 228 229 224
0.308739 -0.105959 -1.04042 0 0 0 179 177 189
0.320047 -0.105737 -1.02628 0 0 0 179 179 181
0.330608 -0.105292 -1.01007 0 0 0 178 178 180
0.341068 -0.104848 -0.993949 0 0 0 176 176 176
0.351802 -0.104515 -0.978973 0 0 0 174 174 176
0.363233 -0.104404 -0.966128 0 0 0 172 172 174
0.372245 -0.103626 -0.947216 0 0 0 171 171 171
0.38355 -0.103515 -0.934497 0 0 0 176 176 178
0.394407 -0.103293 -0.920812 0 0 0 173 173 173
0.404339 -0.102849 -0.905222 0 0 0 171 169 170
0.412824 -0.102071 -0.886838 0 0 0 170 170 170
0.423442 -0.101849 -0.873392 0 0 0 169 168 174
0.432112 -0.101183 -0.856237 0 0 0 168 168 170
0.442579 -0.100961 -0.842941 0 0 0 169 170 164
0.452496 -0.100628 -0.828781 0 0 0 54 53 51
0.462338 -0.100294 -0.814697 0 0 0 66 66 64
0.472105 -0.0999611 -0.800687 0 0 0 71 65 65
0.481796 -0.0996279 -0.786754 0 0 0 64 63 61
0.490862 -0.0991836 -0.772031 0 0 0 64 63 58
0.503201 -0.0994058 -0.76252 0 0 0 55 57 51
0.578818 -0.111845 -0.845295 0 0 0 142 147 150
2.78317 -0.329205 -1.40856 0 0 0 193 206 222
2.59107 -0.302438 -1.25984 0 0 0 198 212 228
2.39098 -0.275448 -1.11627 0 0 0 204 216 228
2.20922 -0.251236 -0.989735 0 0 0 206 220 231
1.41452 -0.156828 -0.582353 0 0 0 112 113 115
1.35212 -0.148053 -0.533031 0 0 0 108 109 111
1.27952 -0.138391 -0.482594 0 0 0 105 106 108
1.2276 -0.131171 -0.442587 0 0 0 103 104 106
1.17931 -0.124507 -0.406024 0 0 0 99 100 102
1.13909 -0.118843 -0.374114 0 0 0 100 106 106
1.09114 -0.112512 -0.341463 0 0 0 102 103 108
0.297069 -0.123025 -1.0535 0 0 0 182 182 184
0.308739 -0.122897 -1.04042 0 0 0 189 187 201
0.320047 -0.122639 -1.02628 0 0 0 218 218 218
0.330608 -0.122124 -1.01007 0 0 0 178 178 180
0.341068 -0.121608 -0.993949 0 0 0 176 176 178
0.352923 -0.121608 -0.982094 0 0 0 175 175 175
0.362846 -0.120964 -0.9651 0 0 0 173 173 173
0.373442 -0.120578 -0.950262 0 0 0 171 171 173
0.38355 -0.120063 -0.934497 0 0 0 175 175 177
0.394407 -0.119805 -0.920812 0 0 0 173 173 175
0.403466 -0.119032 -0.903267 0 0 0 171 171 171
0.412824 -0.118388 -0.886838 0 0 0 170 170 170
0.423442 -0.11813 -0.873392 0 0 0 170 170 170
0.433061 -0.117615 -0.858116 0 0 0 169 169 169
0.442092 -0.116971 -0.842014 0 0 0 167 167 166
0.452496 -0.116713 -0.828781 0 0 0 58 57 55
0.462338 -0.116327 -0.814697 0 0 0 67 66 64
0.473154 -0.116198 -0.802467 0 0 0 68 67 65
0.481796 -0.115554 -0.786754 0 0 0 65 64 62
0.490862 -0.115038 -0.772031 0 0 0 64 62 65
0.578818 -0.129724 -0.845295 0 0 0 140 148 150
2.6101 -0.35336 -1.26909 0 0 0 200 213 229
2.39098 -0.31948 -1.11627 0 0 0 204 217 233
2.23754 -0.295132 -1.00242 0 0 0 209 222 238
1.40951 -0.181253 -0.580291 0 0 0 110 111 113
1.34603 -0.170947 -0.530632 0 0 0 109 109 111
1.22136 -0.151366 -0.440339 0 0 0 103 104 106
1.18247 -0.144796 -0.40711 0 0 0 104 103 106
1.12738 -0.136423 -0.370268 0 0 0 100 101 103
1.09437 -0.130884 -0.342474 0 0 0 102 103 105
0.298936 -0.14086 -1.06012 0 0 0 177 176 179
0.308739 -0.139834 -1.04042 0 0 0 222 220 223
0.320047 -0.139541 -1.02628 0 0 0 222 220 221
0.330608 -0.138955 -1.01007 0 0 0 210 210 208
0.341791 -0.138662 -0.996055 0 0 0 176 176 176
0.352549 -0.138222 -0.981054 0 0 0 174 174 176
0.362846 -0.137636 -0.9651 0 0 0 173 173 173
0.372245 -0.136756 -0.947216 0 0 0 173 173 175
0.382727 -0.136317 -0.932491 0 0 0 176 176 178
0.394407 -0.136317 -0.920812 0 0 0 171 171 171
0.403466 -0.135437 -0.903267 0 0 0 169 169 169
0.412824 -0.134704 -0.886838 0 0 0 169 169 169
0.423442 -0.134411 -0.873392 0 0 0 169 169 169
0.432586 -0.133678 -0.857177 0 0 0 170 170 170
0.442092 -0.133092 -0.842014 0 0 0 170 169 172
0.452496 -0.132799 -0.828781 0 0 0 61 60 58
0.462338 -0.132359 -0.814697 0 0 0 67 60 60
0.472105 -0.131919 -0.800687 0 0 0 65 64 62
0.481796 -0.13148 -0.786754 0 0 0 64 63 61
0.490862 -0.130893 -0.772031 0 0 0 63 62 60
0.502077 -0.130893 -0.760816 0 0 0 35 36 41
0.578818 -0.147603 -0.845295 0 0 0 139 146 156
2.56918 -0.395758 -1.2492 0 0 0 199 217 231
2.37267 -0.360726 -1.10771 0 0 0 205 218 234
2.25317 -0.338153 -1.00942 0 0 0 209 221 233
1.41952 -0.2077 -0.584416 0 0 0 108 109 111
1.33487 -0.192895 -0.526233 0 0 0 108 109 111
1.29492 -0.184834 -0.488404 0 0 0 103 104 106
1.22656 -0.172961 -0.442212 0 0 0 104 105 107
1.17826 -0.164166 -0.405662 0 0 0 105 106 108
1.13058 -0.155665 -0.371317 0 0 0 98 104 100
1.09437 -0.148922 -0.342474 0 0 0 99 105 105
0.298936 -0.157923 -1.06012 0 0 0 178 176 176
0.308739 -0.156772 -1.04042 0 0 0 174 173 178
0.319039 -0.155951 -1.02305 0 0 0 236 236 236
0.330608 -0.155786 -1.01007 0 0 0 181 181 183
0.340707 -0.154965 -0.992897 0 0 0 174 173 181
0.351428 -0.154472 -0.977933 0 0 0 173 173 173
0.362846 -0.154307 -0.9651 0 0 0 173 173 173
0.372245 -0.153321 -0.947216 0 0 0 176 176 177
0.382727 -0.152828 -0.932491 0 0 0 175 175 177
0.393134 -0.152335 -0.917842 0 0 0 172 172 172
0.403466 -0.151842 -0.903267 0 0 0 171 171 171
0.412824 -0.151021 -0.886838 0 0 0 171 171 171
0.42298 -0.150528 -0.87244 0 0 0 170 170 172
0.431638 -0.149542 -0.855297 0 0 0 168 168 170
0.442092 -0.149213 -0.842014 0 0 0 168 167 173
0.452496 -0.148884 -0.828781 0 0 0 68 67 65
0.462338 -0.148391 -0.814697 0 0 0 66 65 63
0.472105 -0.147898 -0.800687 0 0 0 65 64 62
0.481796 -0.147405 -0.786754 0 0 0 62 61 59
0.490862 -0.146748 -0.772031 0 0 0 60 59 57
0.581692 -0.166303 -0.849492 0 0 0 143 143 148
2.78223 -0.486914 -1.40809 0 0 0 192 209 225
2.56918 -0.443695 -1.2492 0 0 0 198 215 231
2.39002 -0.407378 -1.11582 0 0 0 206 219 236
2.23852 -0.376648 -1.00286 0 0 0 209 223 234
1.41452 -0.232036 -0.582353 0 0 0 112 113 115
1.34096 -0.217246 -0.528632 0 0 0 104 105 107
1.27541 -0.2041 -0.481045 0 0 0 99 104 108
1.22136 -0.19309 -0.440339 0 0 0 105 106 108
1.17405 -0.183394 -0.404213 0 0 0 102 103 105
1.13803 -0.17567 -0.373765 0 0 0 103 104 106
1.09652 -0.167289 -0.343148 0 0 0 97 102 106
0.297069 -0.173892 -1.0535 0 0 0 174 174 174
0.308739 -0.17371 -1.04042 0 0 0 172 172 172
0.320047 -0.173346 -1.02628 0 0 0 165 163 176
0.330259 -0.172435 -1.009 0 0 0 175 175 175
0.339623 -0.171161 -0.989738 0 0 0 175 175 175
0.351428 -0.171161 -0.977933 0 0 0 172 172 174
0.362074 -0.170615 -0.963045 0 0 0 171 171 173
0.372245 -0.169886 -0.947216 0 0 0 174 174 176
0.382727 -0.16934 -0.932491 0 0 0 173 173 173
0.394407 -0.16934 -0.920812 0 0 0 170 170 172
0.403466 -0.168248 -0.903267 0 0 0 172 170 176
0.412375 -0.167155 -0.885873 0 0 0 170 170 170
0.42298 -0.166791 -0.87244 0 0 0 169 169 169
0.432586 -0.166062 -0.857177 0 0 0 169 169 169
0.442092 -0.165334 -0.842014 0 0 0 167 167 165
0.452496 -0.16497 -0.828781 0 0 0 68 67 65
0.462338 -0.164424 -0.814697 0 0 0 67 59 60
0.472105 -0.163877 -0.800687 0 0 0 63 62 56
0.481796 -0.163331 -0.786754 0 0 0 58 56 54
0.489763 -0.162239 -0.770301 0 0 0 56 56 46
0.579968 -0.183725 -0.846974 0 0 0 138 146 148
2.56823 -0.49145 -1.24873 0 0 0 200 218 232
2.3717 -0.447932 -1.10726 0 0 0 206 219 236
2.25219 -0.41989 -1.00899 0 0 0 211 224 240
1.46504 -0.269669 -0.62941 0 0 0 108 112 126
1.41351 -0.256923 -0.581941 0 0 0 106 107 109
1.35212 -0.242721 -0.533031 0 0 0 106 107 112
1.2713 -0.225423 -0.479496 0 0 0 105 106 111
1.18247 -0.204665 -0.40711 0 0 0 100 101 106
1.13377 -0.193922 -0.372366 0 0 0 99 104 108
1.09652 -0.185364 -0.343148 0 0 0 100 100 106
0.297069 -0.190848 -1.0535 0 0 0 178 178 178
0.308739 -0.190648 -1.04042 0 0 0 175 175 175
0.319711 -0.190048 -1.02521 0 0 0 177 177 177
0.330259 -0.189249 -1.009 0 0 0 174 174 172
0.340707 -0.18845 -0.992897 0 0 0 172 172 174
0.352549 -0.18845 -0.981054 0 0 0 174 174 176
0.362074 -0.187251 -0.963045 0 0 0 173 173 173
0.372245 -0.186451 -0.947216 0 0 0 170 170 170
0.382727 -0.185852 -0.932491 0 0 0 172 172 174
0.393134 -0.185252 -0.917842 0 0 0 171 171 171
0.403029 -0.184453 -0.90229 0 0 0 168 168 168
0.412375 -0.183454 -0.885873 0 0 0 168 168 168
0.42298 -0.183054 -0.87244 0 0 0 169 169 169
0.431638 -0.181855 -0.855297 0 0 0 167 167 167
0.442092 -0.181455 -0.842014 0 0 0 168 168 172
0.452496 -0.181056 -0.828781 0 0 0 63 56 56
0.462338 -0.180456 -0.814697 0 0 0 63 62 60
0.472105 -0.179857 -0.800687 0 0 0 58 58 56
0.480722 -0.178857 -0.784999 0 0 0 57 57 55
0.490313 -0.178258 -0.771166 0 0 0 51 51 41
0.502639 -0.178658 -0.761668 0 0 0 34 35 40
0.579968 -0.201639 -0.846974 0 0 0 138 146 148
2.78129 -0.591928 -1.40761 0 0 0 189 208 225
2.56823 -0.53937 -1.24873 0 0 0 197 215 238
2.3717 -0.491608 -1.10726 0 0 0 206 218 236
2.26782 -0.46403 -1.01599 0 0 0 211 224 240
1.41351 -0.281975 -0.581941 0 0 0 106 107 109
1.34502 -0.264989 -0.530232 0 0 0 102 108 108
1.2713 -0.247403 -0.479496 0 0 0 102 103 108
1.22136 -0.234813 -0.440339 0 0 0 101 101 107
1.17826 -0.223821 -0.405662 0 0 0 100 101 106
1.13058 -0.212231 -0.371317 0 0 0 98 103 107
1.09652 -0.203438 -0.343148 0 0 0 100 101 106
0.298936 -0.209109 -1.06012 0 0 0 174 174 176
0.308415 -0.207368 -1.03933 0 0 0 170 170 170
0.319711 -0.206933 -1.02521 0 0 0 176 176 178
0.330259 -0.206063 -1.009 0 0 0 174 174 176
0.340707 -0.205192 -0.992897 0 0 0 172 172 172
0.351428 -0.204539 -0.977933 0 0 0 172 172 172
0.362074 -0.203887 -0.963045 0 0 0 172 172 172
0.372245 -0.203016 -0.947216 0 0 0 172 172 172
0.38355 -0.202799 -0.934497 0 0 0 171 171 171
0.393983 -0.202146 -0.919822 0 0 0 170 170 170
0.403029 -0.20084 -0.90229 0 0 0 170 170 170
0.412375 -0.199752 -0.885873 0 0 0 170 170 170
0.42298 -0.199317 -0.87244 0 0 0 168 168 168
0.431638 -0.198012 -0.855297 0 0 0 169 169 169
0.442092 -0.197576 -0.842014 0 0 0 168 169 163
0.452496 -0.197141 -0.828781 0 0 0 56 57 55
0.462338 -0.196488 -0.814697 0 0 0 61 60 58
0.472105 -0.195836 -0.800687 0 0 0 59 58 56
0.481259 -0.194965 -0.785877 0 0 0 55 54 49
0.490313 -0.194095 -0.771166 0 0 0 51 50 44
0.501515 -0.194095 -0.759964 0 0 0 39 39 45
0.580543 -0.219771 -0.847813 0 0 0 138 144 150
2.78129 -0.644517 -1.40761 0 0 0 188 207 224
2.56823 -0.587289 -1.24873 0 0 0 196 215 232
2.35531 -0.531585 -1.09961 0 0 0 203 222 239
2.23754 -0.49851 -1.00242 0 0 0 208 225 241
1.41351 -0.307027 -0.581941 0 0 0 109 110 114
1.33994 -0.287443 -0.528233 0 0 0 105 105 108
1.27849 -0.270906 -0.482207 0 0 0 101 102 107
1.22136 -0.255674 -0.440339 0 0 0 100 101 104
1.17405 -0.242836 -0.404213 0 0 0 97 98 103
1.13058 -0.231086 -0.371317 0 0 0 101 102 107
1.09652 -0.221512 -0.343148 0 0 0 100 101 106
0.297691 -0.22523 -1.05571 0 0 0 175 175 177
0.309386 -0.224994 -1.0426 0 0 0 180 180 180
0.319711 -0.223818 -1.02521 0 0 0 171 171 173
0.330259 -0.222876 -1.009 0 0 0 172 172 172
0.340707 -0.221935 -0.992897 0 0 0 171 171 171
0.351428 -0.221229 -0.977933 0 0 0 171 171 171
0.362074 -0.220523 -0.963045 0 0 0 171 171 171
0.372245 -0.219581 -0.947216 0 0 0 172 172 174
0.382316 -0.21864 -0.931489 0 0 0 170 170 170
0.393983 -0.21864 -0.919822 0 0 0 169 169 169
0.403029 -0.217228 -0.90229 0 0 0 169 169 169
0.412375 -0.216051 -0.885873 0 0 0 169 169 169
0.42298 -0.21558 -0.87244 0 0 0 169 169 169
0.432586 -0.214639 -0.857177 0 0 0 168 168 168
0.442092 -0.213698 -0.842014 0 0 0 167 167 164
0.452496 -0.213227 -0.828781 0 0 0 58 57 55
0.462338 -0.212521 -0.814697 0 0 0 57 56 54
0.47158 -0.211579 -0.799798 0 0 0 54 53 48
0.481259 -0.210873 -0.785877 0 0 0 55 54 52
0.489213 -0.209461 -0.769437 0 0 0 48 47 45
0.501515 -0.209932 -0.759964 0 0 0 39 35 45
0.578243 -0.236762 -0.844455 0 0 0 134 142 145
2.7334 -0.685103 -1.38338 0 0 0 186 204 226
2.54825 -0.630266 -1.23902 0 0 0 196 214 236
2.37074 -0.578725 -1.10681 0 0 0 202 219 237
2.25121 -0.542481 -1.00855 0 0 0 206 223 239
1.41351 -0.332078 -0.581941 0 0 0 108 108 110
1.34502 -0.312074 -0.530232 0 0 0 101 101 108
1.28362 -0.294187 -0.484143 0 0 0 100 100 102
1.22552 -0.277477 -0.441838 0 0 0 98 100 97
1.18562 -0.265239 -0.408197 0 0 0 97 97 100
1.13058 -0.249941 -0.371317 0 0 0 100 105 109
1.09329 -0.23888 -0.342137 0 0 0 99 101 97
0.298624 -0.24298 -1.05902 0 0 0 171 171 171
0.309386 -0.241968 -1.0426 0 0 0 173 173 173
0.319711 -0.240702 -1.02521 0 0 0 171 171 173
0.330259 -0.23969 -1.009 0 0 0 173 173 175
0.340707 -0.238677 -0.992897 0 0 0 173 173 173
0.351428 -0.237918 -0.977933 0 0 0 173 173 173
0.362074 -0.237159 -0.963045 0 0 0 172 172 172
0.371846 -0.235893 -0.946201 0 0 0 171 171 173
0.383139 -0.23564 -0.933494 0 0 0 170 170 170
0.39271 -0.234375 -0.916851 0 0 0 169 169 169
0.403029 -0.233615 -0.90229 0 0 0 170 170 170
0.412375 -0.23235 -0.885873 0 0 0 170 170 170
0.42298 -0.231843 -0.87244 0 0 0 169 169 169
0.432586 -0.230831 -0.857177 0 0 0 170 170 170
0.442092 -0.229819 -0.842014 0 0 0 167 167 164
0.452496 -0.229312 -0.828781 0 0 0 53 51 52
0.461826 -0.2283 -0.813794 0 0 0 56 55 50
0.47158 -0.227541 -0.799798 0 0 0 51 50 48
0.48287 -0.227541 -0.788508 0 0 0 50 48 49
0.490313 -0.225769 -0.771166 0 0 0 52 52 45
0.501515 -0.225769 -0.759964 0 0 0 41 38 45
0.579968 -0.255382 -0.846974 0 0 0 138 148 151
2.78035 -0.749442 -1.40714 0 0 0 184 202 224
2.54825 -0.677813 -1.23902 0 0 0 192 214 234
2.35531 -0.618334 -1.09961 0 0 0 202 219 237
2.22094 -0.575559 -0.994985 0 0 0 207 224 242
1.40149 -0.354093 -0.576992 0 0 0 104 105 107
1.33994 -0.334351 -0.528233 0 0 0 104 105 107
1.27438 -0.314102 -0.480658 0 0 0 100 102 99
1.22552 -0.29841 -0.441838 0 0 0 96 96 105
1.17826 -0.283477 -0.405662 0 0 0 95 96 101
1.12632 -0.267784 -0.369918 0 0 0 95 100 104
1.09329 -0.256901 -0.342137 0 0 0 96 97 102
0.298624 -0.260024 -1.05902 0 0 0 176 176 178
0.309386 -0.258941 -1.0426 0 0 0 173 173 173
0.319711 -0.257587 -1.02521 0 0 0 172 172 172
0.329562 -0.255962 -1.00687 0 0 0 172 172 174
0.340707 -0.25542 -0.992897 0 0 0 171 171 173
0.35068 -0.254066 -0.975852 0 0 0 172 172 174
0.361687 -0.253524 -0.962017 0 0 0 170 170 170
0.371846 -0.25244 -0.946201 0 0 0 170 170 172
0.383139 -0.252169 -0.933494 0 0 0 169 169 169
0.39271 -0.250815 -0.916851 0 0 0 169 169 171
0.403029 -0.250003 -0.90229 0 0 0 170 170 170
0.412375 -0.248648 -0.885873 0 0 0 168 168 168
0.42298 -0.248107 -0.87244 0 0 0 169 169 169
0.431638 -0.246481 -0.855297 0 0 0 171 171 171
0.442092 -0.24594 -0.842014 0 0 0 167 168 165
0.451997 -0.245127 -0.827866 0 0 0 52 50 51
0.461826 -0.244315 -0.813794 0 0 0 56 56 54
0.47158 -0.243502 -0.799798 0 0 0 51 50 48
0.48287 -0.243502 -0.788508 0 0 0 51 50 48
0.489213 -0.241064 -0.769437 0 0 0 49 50 43
0.501515 -0.241606 -0.759964 0 0 0 42 42 48
0.579968 -0.273296 -0.846974 0 0 0 136 146 149
2.78035 -0.802013 -1.40714 0 0 0 182 200 222
2.56728 -0.730777 -1.24827 0 0 0 193 214 235
2.35435 -0.661437 -1.09916 0 0 0 199 217 239
2.23656 -0.620266 -1.00199 0 0 0 203 222 237
1.41351 -0.382182 -0.581941 0 0 0 102 103 108
1.33386 -0.356179 -0.525833 0 0 0 98 103 108
1.27438 -0.336136 -0.480658 0 0 0 101 101 103
1.22968 -0.320426 -0.443337 0 0 0 91 92 97
1.17721 -0.303091 -0.405299 0 0 0 94 95 97
1.13377 -0.288465 -0.372366 0 0 0 95 96 101
1.09329 -0.274922 -0.342137 0 0 0 94 99 103
0.298624 -0.277069 -1.05902 0 0 0 176 176 176
0.309386 -0.275914 -1.0426 0 0 0 173 173 173
0.319711 -0.274471 -1.02521 0 0 0 176 176 176
0.330259 -0.273317 -1.009 0 0 0 172 172 174
0.340707 -0.272162 -0.992897 0 0 0 171 171 171
0.350306 -0.270431 -0.974812 0 0 0 170 170 170
0.361687 -0.270142 -0.962017 0 0 0 170 170 172
0.371846 -0.268988 -0.946201 0 0 0 171 171 171
0.382316 -0.268122 -0.931489 0 0 0 169 169 169
0.39271 -0.267256 -0.916851 0 0 0 169 169 171
0.40172 -0.265524 -0.899357 0 0 0 168 168 168
0.412375 -0.264947 -0.885873 0 0 0 169 169 169
0.42298 -0.26437 -0.87244 0 0 0 170 170 170
0.431638 -0.262638 -0.855297 0 0 0 171 171 171
0.441605 -0.261772 -0.841087 0 0 0 166 166 162
0.451997 -0.261195 -0.827866 0 0 0 53 52 47
0.461826 -0.260329 -0.813794 0 0 0 57 56 51
0.47158 -0.259463 -0.799798 0 0 0 52 51 49
0.481259 -0.258598 -0.785877 0 0 0 50 49 47
0.490313 -0.257443 -0.771166 0 0 0 46 47 40
0.501515 -0.257443 -0.759964 0 0 0 38 37 45
0.578243 -0.290345 -0.844455 0 0 0 137 142 149
2.75687 -0.847369 -1.39526 0 0 0 179 200 221
2.56633 -0.77839 -1.24781 0 0 0 188 210 230
2.35435 -0.704794 -1.09916 0 0 0 196 217 238
1.46405 -0.427148 -0.628985 0 0 0 104 109 114
1.34502 -0.382701 -0.530232 0 0 0 97 98 99
1.27849 -0.359324 -0.482207 0 0 0 96 97 102
1.22552 -0.340275 -0.441838 0 0 0 94 94 98
1.173 -0.321804 -0.403851 0 0 0 93 94 96
1.13697 -0.308239 -0.373415 0 0 0 95 93 99
1.09652 -0.293808 -0.343148 0 0 0 96 95 106
0.299558 -0.295032 -1.06233 0 0 0 175 175 177
0.309386 -0.292888 -1.0426 0 0 0 166 166 168
0.319711 -0.291356 -1.02521 0 0 0 175 175 175
0.330259 -0.29013 -1.009 0 0 0 170 170 172
0.340345 -0.288599 -0.991844 0 0 0 173 173 175
0.351054 -0.287679 -0.976893 0 0 0 170 170 170
0.360528 -0.285841 -0.958933 0 0 0 173 172 179
0.371846 -0.285535 -0.946201 0 0 0 171 171 171
0.381081 -0.283697 -0.928481 0 0 0 170 170 172
0.39271 -0.283697 -0.916851 0 0 0 164 164 166
0.403029 -0.282778 -0.90229 0 0 0 168 168 168
0.412375 -0.281246 -0.885873 0 0 0 170 170 172
0.421595 -0.279714 -0.869582 0 0 0 169 169 169
0.431163 -0.278488 -0.854357 0 0 0 169 169 169
0.441605 -0.277876 -0.841087 0 0 0 172 174 163
0.451997 -0.277263 -0.827866 0 0 0 50 49 47
0.461826 -0.276344 -0.813794 0 0 0 53 52 50
0.47158 -0.275425 -0.799798 0 0 0 55 54 52
0.481259 -0.274506 -0.785877 0 0 0 51 50 48
0.490313 -0.27328 -0.771166 0 0 0 47 48 41
0.579393 -0.308819 -0.846134 0 0 0 140 144 151
2.77941 -0.906849 -1.40666 0 0 0 174 199 221
2.54729 -0.820147 -1.23856 0 0 0 187 208 228
2.35435 -0.74815 -1.09916 0 0 0 195 216 237
2.25024 -0.705872 -1.00811 0 0 0 202 221 238
1.46405 -0.453424 -0.628985 0 0 0 98 102 111
1.27849 -0.381428 -0.482207 0 0 0 89 90 93
1.22032 -0.359676 -0.439964 0 0 0 91 93 93
1.16879 -0.340375 -0.402402 0 0 0 93 94 96
1.13697 -0.327201 -0.373415 0 0 0 94 93 98
1.09221 -0.310657 -0.3418 0 0 0 90 95 99
0.297691 -0.310185 -1.05571 0 0 0 169 169 169
0.309386 -0.309861 -1.0426 0 0 0 174 174 176
0.320383 -0.308889 -1.02736 0 0 0 172 172 174
0.32991 -0.30662 -1.00794 0 0 0 174 174 176
0.340345 -0.305323 -0.991844 0 0 0 172 172 172
0.351054 -0.304351 -0.976893 0 0 0 172 172 174
0.361687 -0.303379 -0.962017 0 0 0 170 170 172
0.371846 -0.302082 -0.946201 0 0 0 170 170 172
0.381081 -0.300137 -0.928481 0 0 0 170 170 170
0.39271 -0.300137 -0.916851 0 0 0 168 168 170
0.40172 -0.298193 -0.899357 0 0 0 169 169 169
0.411476 -0.296896 -0.883943 0 0 0 167 167 169
0.421133 -0.2956 -0.86863 0 0 0 168 168 168
0.431163 -0.294627 -0.854357 0 0 0 167 167 167
0.441605 -0.293979 -0.841087 0 0 0 170 171 164
0.451997 -0.293331 -0.827866 0 0 0 50 49 44
0.461826 -0.292358 -0.813794 0 0 0 52 50 49
0.47158 -0.291386 -0.799798 0 0 0 53 52 50
0.481259 -0.290414 -0.785877 0 0 0 51 50 48
0.490313 -0.289117 -0.771166 0 0 0 45 45 43
0.501515 -0.289117 -0.759964 0 0 0 36 38 46
0.579968 -0.327039 -0.846974 0 0 0 136 143 146
2.77941 -0.959402 -1.40666 0 0 0 175 196 217
2.56633 -0.874158 -1.24781 0 0 0 186 207 228
2.35435 -0.791507 -1.09916 0 0 0 192 212 236
2.25024 -0.746778 -1.00811 0 0 0 200 218 240
1.4075 -0.455392 -0.579466 0 0 0 102 101 111
1.33893 -0.427842 -0.527833 0 0 0 96 97 102
1.26514 -0.399319 -0.477172 0 0 0 93 92 98
1.22032 -0.38052 -0.439964 0 0 0 88 89 91
1.16879 -0.3601 -0.402402 0 0 0 89 89 96
1.13271 -0.344866 -0.372016 0 0 0 93 94 99
1.09544 -0.329632 -0.342811 0 0 0 92 94 91
0.299558 -0.329227 -1.06233 0 0 0 174 176 175
0.310357 -0.32786 -1.04587 0 0 0 176 176 178
0.320047 -0.325467 -1.02628 0 0 0 172 172 174
0.329213 -0.322732 -1.0058 0 0 0 173 173 175
0.340345 -0.322048 -0.991844 0 0 0 172 172 174
0.351054 -0.321022 -0.976893 0 0 0 172 172 172
0.361687 -0.319997 -0.962017 0 0 0 170 170 172
0.371048 -0.317946 -0.944171 0 0 0 172 172 174
0.382316 -0.317604 -0.931489 0 0 0 167 167 169
0.391862 -0.315894 -0.914871 0 0 0 169 169 171
0.402593 -0.315211 -0.901312 0 0 0 170 170 170
0.411027 -0.312817 -0.882978 0 0 0 168 168 170
0.422518 -0.312817 -0.871487 0 0 0 168 168 168
0.430215 -0.310082 -0.852477 0 0 0 167 167 167
0.441605 -0.310082 -0.841087 0 0 0 167 168 161
0.451997 -0.309399 -0.827866 0 0 0 48 47 45
0.461826 -0.308373 -0.813794 0 0 0 50 49 47
0.47158 -0.307347 -0.799798 0 0 0 53 52 50
0.48287 -0.307347 -0.788508 0 0 0 48 46 46
0.489763 -0.304612 -0.770301 0 0 0 40 40 36
0.502077 -0.305296 -0.760816 0 0 0 34 39 46
0.579968 -0.344954 -0.846974 0 0 0 132 142 145
2.77847 -1.01161 -1.40619 0 0 0 172 192 216
2.54634 -0.914863 -1.23809 0 0 0 185 206 226
2.37074 -0.840675 -1.10681 0 0 0 190 210 234
2.25024 -0.787684 -1.00811 0 0 0 196 216 241
1.46999 -0.508029 -0.631535 0 0 0 99 104 110
1.41251 -0.482046 -0.581529 0 0 0 102 102 105
1.344 -0.452987 -0.529832 0 0 0 91 92 94
1.26411 -0.42085 -0.476784 0 0 0 88 90 90
1.21616 -0.399996 -0.438465 0 0 0 88 89 94
1.17721 -0.38256 -0.405299 0 0 0 88 89 94
1.13271 -0.363757 -0.372016 0 0 0 91 92 94
1.08898 -0.345638 -0.340789 0 0 0 92 92 94
0.299558 -0.346325 -1.06233 0 0 0 175 177 176
0.309062 -0.343448 -1.04151 0 0 0 174 175 177
0.320047 -0.342369 -1.02628 0 0 0 175 175 177
0.32991 -0.340211 -1.00794 0 0 0 174 174 172
0.340345 -0.338773 -0.991844 0 0 0 171 171 173
0.351054 -0.337694 -0.976893 0 0 0 171 171 173
0.360528 -0.335536 -0.958933 0 0 0 173 173 173
0.371048 -0.334457 -0.944171 0 0 0 172 172 174
0.381081 -0.333019 -0.928481 0 0 0 170 170 172
0.391438 -0.33194 -0.913881 0 0 0 170 170 172
0.401283 -0.330501 -0.898379 0 0 0 173 173 173
0.411027 -0.329063 -0.882978 0 0 0 168 168 168
0.421133 -0.327984 -0.86863 0 0 0 168 168 168
0.431163 -0.326905 -0.854357 0 0 0 167 169 168
0.440144 -0.325107 -0.838305 0 0 0 169 170 163
0.451997 -0.325466 -0.827866 0 0 0 49 48 46
0.461826 -0.324388 -0.813794 0 0 0 52 45 46
0.47158 -0.323309 -0.799798 0 0 0 53 53 46
0.481259 -0.32223 -0.785877 0 0 0 46 45 43
0.489763 -0.320432 -0.770301 0 0 0 41 41 39
0.579968 -0.362868 -0.846974 0 0 0 131 137 142
2.54634 -0.962374 -1.23809 0 0 0 183 203 227
2.35338 -0.87786 -1.09871 0 0 0 188 209 230
2.24926 -0.828231 -1.00767 0 0 0 192 213 234
1.47493 -0.536211 -0.63366 0 0 0 96 103 114
1.4075 -0.505282 -0.579466 0 0 0 99 100 104
1.33893 -0.474714 -0.527833 0 0 0 91 92 97
1.26411 -0.442706 -0.476784 0 0 0 89 90 91
1.21513 -0.420409 -0.43809 0 0 0 89 91 90
1.173 -0.400989 -0.403851 0 0 0 86 87 89
1.12951 -0.381569 -0.370967 0 0 0 90 90 100
1.09221 -0.364666 -0.3418 0 0 0 90 92 89
0.310033 -0.361536 -1.04478 0 0 0 173 173 175
0.320047 -0.359271 -1.02628 0 0 0 172 172 174
0.330957 -0.358139 -1.01113 0 0 0 171 171 173
0.340345 -0.355498 -0.991844 0 0 0 170 169 175
0.351054 -0.354365 -0.976893 0 0 0 171 171 173
0.360528 -0.352101 -0.958933 0 0 0 169 169 171
0.371048 -0.350969 -0.944171 0 0 0 169 169 171
0.38067 -0.349082 -0.927478 0 0 0 171 171 171
0.391438 -0.348327 -0.913881 0 0 0 168 167 173
0.401283 -0.346818 -0.898379 0 0 0 168 168 168
0.411027 -0.345308 -0.882978 0 0 0 170 170 172
0.421133 -0.344176 -0.86863 0 0 0 168 168 168
0.430215 -0.342289 -0.852477 0 0 0 166 166 166
0.441605 -0.342289 -0.841087 0 0 0 166 167 159
0.451997 -0.341534 -0.827866 0 0 0 50 49 44
0.461826 -0.340402 -0.813794 0 0 0 48 47 45
0.471056 -0.338893 -0.798908 0 0 0 52 51 49
0.480722 -0.33776 -0.784999 0 0 0 48 47 45
0.489763 -0.336251 -0.770301 0 0 0 45 46 38
0.579968 -0.380782 -0.846974 0 0 0 129 139 138
2.77847 -1.11669 -1.40619 0 0 0 174 193 205
2.54634 -1.00988 -1.23809 0 0 0 180 200 224
2.36977 -0.927615 -1.10636 0 0 0 184 209 229
2.26489 -0.875158 -1.01468 0 0 0 191 216 238
1.46306 -0.558154 -0.62856 0 0 0 96 101 107
1.39949 -0.527208 -0.576167 0 0 0 91 96 100
1.344 -0.500036 -0.529832 0 0 0 92 93 95
1.21928 -0.442674 -0.439589 0 0 0 85 87 86
1.16879 -0.419276 -0.402402 0 0 0 82 83 85
1.12951 -0.400407 -0.370967 0 0 0 88 89 91
0.321056 -0.377359 -1.02952 0 0 0 174 175 177
0.32991 -0.373803 -1.00794 0 0 0 176 176 178
0.341068 -0.373013 -0.993949 0 0 0 170 170 172
0.351054 -0.371037 -0.976893 0 0 0 169 170 172
0.360528 -0.368666 -0.958933 0 0 0 172 172 174
0.371447 -0.367876 -0.945186 0 0 0 169 169 171
0.381904 -0.36669 -0.930486 0 0 0 170 172 171
0.391438 -0.364715 -0.913881 0 0 0 167 168 170
0.401283 -0.363134 -0.898379 0 0 0 166 168 166
0.411027 -0.361554 -0.882978 0 0 0 166 166 168
0.421133 -0.360368 -0.86863 0 0 0 167 167 169
0.431163 -0.359183 -0.854357 0 0 0 167 167 169
0.441605 -0.358392 -0.841087 0 0 0 166 169 153
0.451997 -0.357602 -0.827866 0 0 0 51 50 48
0.461314 -0.356022 -0.812892 0 0 0 49 48 43
0.471056 -0.354836 -0.798908 0 0 0 56 50 50
0.482333 -0.354836 -0.787631 0 0 0 50 43 44
0.489763 -0.35207 -0.770301 0 0 0 45 46 39
0.502077 -0.352861 -0.760816 0 0 0 21 26 33
0.581117 -0.399487 -0.848653 0 0 0 130 135 139
2.70899 -1.13998 -1.37102 0 0 0 100 100 108
2.54539 -1.057 -1.23763 0 0 0 179 199 223
2.36977 -0.971255 -1.10636 0 0 0 184 208 230
2.26489 -0.916331 -1.01468 0 0 0 191 210 235
1.469 -0.586784 -0.63111 0 0 0 92 97 103
1.4065 -0.554777 -0.579054 0 0 0 88 96 96
1.33893 -0.521586 -0.527833 0 0 0 86 88 88
1.26925 -0.488394 -0.478721 0 0 0 88 88 90
1.21513 -0.461919 -0.43809 0 0 0 86 88 90
1.17195 -0.440187 -0.403488 0 0 0 84 85 91
0.330957 -0.391837 -1.01113 0 0 0 172 172 174
0.341068 -0.389773 -0.993949 0 0 0 172 171 177
0.352176 -0.388947 -0.980014 0 0 0 168 168 170
0.360141 -0.384818 -0.957906 0 0 0 172 172 174
0.371447 -0.384405 -0.945186 0 0 0 168 168 170
0.38067 -0.381928 -0.927478 0 0 0 169 169 171
0.392286 -0.381928 -0.915861 0 0 0 168 168 170
0.401283 -0.379451 -0.898379 0 0 0 169 169 168
0.411027 -0.377799 -0.882978 0 0 0 167 167 169
0.421133 -0.37656 -0.86863 0 0 0 167 167 167
0.431163 -0.375322 -0.854357 0 0 0 165 165 165
0.441605 -0.374496 -0.841087 0 0 0 164 164 162
0.451497 -0.373257 -0.826952 0 0 0 48 47 45
0.461314 -0.372018 -0.812892 0 0 0 48 46 44
0.471056 -0.37078 -0.798908 0 0 0 49 48 46
0.480722 -0.369541 -0.784999 0 0 0 43 42 40
0.489763 -0.367889 -0.770301 0 0 0 44 46 35
2.63427 -1.22382 -1.55746 0 0 0 129 131 130
2.66428 -1.22052 -1.51613 0 0 0 125 127 126
2.7478 -1.22465 -1.44676 0 0 0 122 124 124
2.66297 -1.17097 -1.34774 0 0 0 95 96 98
2.52446 -1.09541 -1.22745 0 0 0 172 200 221
2.36977 -1.0149 -1.10636 0 0 0 184 204 228
2.24828 -0.950485 -1.00724 0 0 0 190 210 234
1.47493 -0.615627 -0.63366 0 0 0 92 100 104
1.39949 -0.576814 -0.576167 0 0 0 90 91 96
1.3227 -0.538415 -0.521435 0 0 0 85 87 86
1.27746 -0.513641 -0.48182 0 0 0 87 88 91
1.21928 -0.484326 -0.439589 0 0 0 84 84 82
2.68917 -0.924006 -1.25593 0 0 0 254 255 255
2.52965 -0.867396 -1.13724 0 0 0 255 255 255
1.57282 -0.52563 -0.677683 0 0 0 92 101 104
1.51591 -0.505509 -0.626779 0 0 0 145 145 153
1.42244 -0.472286 -0.563244 0 0 0 139 138 144
1.29442 -0.426859 -0.467433 0 0 0 138 137 143
1.22127 -0.400841 -0.419697 0 0 0 135 135 137
1.1725 -0.383541 -0.382552 0 0 0 133 132 138
1.12678 -0.367319 -0.348058 0 0 0 136 137 142
1.077 -0.349627 -0.313959 0 0 0 138 139 144
1.03737 -0.335565 -0.284413 0 0 0 141 142 147
0.996732 -0.321127 -0.255984 0 0 0 137 136 141
0.980465 -0.315433 -0.234889 0 0 0 7 7 4
0.986538 -0.317763 -0.219398 0 0 0 254 255 255
0.990581 -0.319365 -0.203272 0 0 0 252 253 255
0.947877 -0.304438 -0.145503 0 0 0 14 12 7
0.956997 -0.307865 -0.130468 0 0 0 61 62 57
0.968147 -0.312027 -0.115361 0 0 0 63 57 57
0.977265 -0.31546 -0.0996534 0 0 0 65 58 52
0.988415 -0.319627 -0.0838023 0 0 0 68 64 57
1.00058 -0.324165 -0.0676316 0 0 0 61 56 50
1.00767 -0.326873 -0.0507763 0 0 0 59 60 52
1.02389 -0.332884 -0.0339817 0 0 0 58 53 47
1.03605 -0.337431 -0.0165545 0 0 0 58 56 49
1.76287 -0.600525 0.0325979 0 0 0 54 49 45
1.79633 -0.612896 0.0643124 0 0 0 47 42 38
1.81153 -0.618665 0.096219 0 0 0 47 42 38
1.82773 -0.624806 0.128728 0 0 0 43 46 37
1.85409 -0.634629 0.1627 0 0 0 57 52 46
1.86928 -0.640413 0.196412 0 0 0 59 60 49
1.90781 -0.654664 0.23353 0 0 0 49 44 38
1.91488 -0.657515 0.267569 0 0 0 45 39 35
1.94428 -0.66847 0.305384 0 0 0 42 40 36
1.97266 -0.679065 0.344048 0 0 0 54 50 42
1.9919 -0.686352 0.38194 0 0 0 49 44 40
2.03449 -0.702123 0.425416 0 0 0 71 66 60
2.05475 -0.709793 0.465292 0 0 0 49 44 38
2.08719 -0.721896 0.508862 0 0 0 37 37 29
2.10947 -0.730318 0.550899 0 0 0 48 43 37
2.13074 -0.738377 0.59343 0 0 0 64 60 51
2.10127 -0.727973 0.621607 0 0 0 55 54 49
2.06165 -0.713864 0.64556 0 0 0 65 59 57
2.02204 -0.699744 0.668132 0 0 0 66 65 63
1.99561 -0.690421 0.693941 0 0 0 82 74 75
1.95904 -0.67739 0.715101 0 0 0 73 71 76
1.93465 -0.668789 0.739673 0 0 0 65 65 67
1.90011 -0.656479 0.759313 0 0 0 86 86 84
1.84832 -0.637862 0.770511 0 0 0 85 85 87
1.81683 -0.626641 0.788775 0 0 0 98 98 99
1.8036 -0.622084 0.814244 0 0 0 7 6 11
3.00538 -1.08834 -1.47399 0 0 0 249 255 255
2.80755 -1.01469 -1.3273 0 0 0 251 255 255
2.5756 -0.928203 -1.17198 0 0 0 255 255 255
1.54658 -0.543047 -0.647299 0 0 0 145 144 152
1.44817 -0.506361 -0.580468 0 0 0 136 137 142
1.29554 -0.449488 -0.473519 0 0 0 134 134 134
1.2383 -0.428183 -0.430785 0 0 0 136 134 145
1.18207 -0.407238 -0.390403 0 0 0 133 134 139
1.12785 -0.387031 -0.352639 0 0 0 134 133 139
1.09269 -0.373981 -0.322483 0 0 0 140 141 146
1.04048 -0.354501 -0.28877 0 0 0 139 139 147
1.00734 -0.342184 -0.261921 0 0 0 137 137 139
0.980223 -0.332125 -0.237721 0 0 0 13 13 11
0.988232 -0.335292 -0.222494 0 0 0 236 235 242
0.99022 -0.336192 -0.205715 0 0 0 251 252 254
1.06246 -0.363582 -0.202422 0 0 0 182 183 177
0.94701 -0.320339 -0.147199 0 0 0 10 10 12
0.957026 -0.324264 -0.132129 0 0 0 68 60 58
0.964032 -0.327056 -0.116337 0 0 0 65 63 51
0.977058 -0.332125 -0.100927 0 0 0 65 58 52
0.991086 -0.337577 -0.0851454 0 0 0 66 61 55
0.999094 -0.340757 -0.0684492 0 0 0 62 57 53
1.01011 -0.345077 -0.0516262 0 0 0 62 57 51
1.02113 -0.349401 -0.0344138 0 0 0 61 56 52
1.03616 -0.355248 -0.0168789 0 0 0 54 48 49
1.75952 -0.629663 0.0327035 0 0 0 39 34 28
1.78356 -0.639048 0.0643872 0 0 0 42 37 33
1.80961 -0.649201 0.0970286 0 0 0 41 40 38
1.83466 -0.658981 0.130518 0 0 0 56 52 43
1.84064 -0.661533 0.163193 0 0 0 56 52 44
1.87873 -0.676278 0.199509 0 0 0 58 53 47
1.90578 -0.686841 0.235797 0 0 0 54 50 38
1.9248 -0.694362 0.2719 0 0 0 48 42 37
1.95285 -0.705322 0.310118 0 0 0 52 47 41
1.9829 -0.717053 0.349683 0 0 0 53 53 45
2.00192 -0.724594 0.388157 0 0 0 56 52 43
2.03499 -0.737487 0.430291 0 0 0 49 44 40
2.054 -0.745041 0.470358 0 0 0 36 36 28
2.08807 -0.758333 0.514829 0 0 0 42 37 34
2.12213 -0.771635 0.560503 0 0 0 50 45 39
2.11808 -0.770415 0.596583 0 0 0 60 57 42
2.07691 -0.755041 0.621353 0 0 0 66 56 55
2.04878 -0.744629 0.648826 0 0 0 52 52 41
2.02166 -0.734592 0.675645 0 0 0 68 67 65
1.98351 -0.720334 0.697604 0 0 0 74 73 71
1.9574 -0.710662 0.72269 0 0 0 66 66 66
1.91223 -0.6937 0.73944 0 0 0 81 81 83
1.87809 -0.680943 0.759084 0 0 0 91 91 92
1.84496 -0.668559 0.777952 0 0 0 97 98 93
1.81383 -0.656934 0.796538 0 0 0 97 96 106
1.78271 -0.645299 0.814027 0 0 0 47 48 42
1.74357 -0.630582 0.826588 0 0 0 89 89 87
2.84305 -1.07817 -1.36055 0 0 0 251 255 255
2.62177 -0.991762 -1.20765 0 0 0 254 255 255
2.46696 -0.931388 -1.09223 0 0 0 255 255 255
1.55527 -0.573664 -0.658931 0 0 0 144 143 152
1.46695 -0.539202 -0.595265 0 0 0 143 144 146
1.39451 -0.510952 -0.540965 0 0 0 135 135 137
1.30323 -0.475269 -0.482203 0 0 0 132 132 134
1.25063 -0.454779 -0.440468 0 0 0 133 133 135
1.19208 -0.43193 -0.398595 0 0 0 134 132 143
1.13949 -0.411407 -0.360718 0 0 0 137 138 143
1.09682 -0.394775 -0.327715 0 0 0 134 135 140
1.05415 -0.378131 -0.296235 0 0 0 136 137 142
1.00949 -0.360692 -0.265747 0 0 0 137 136 142
0.98468 -0.351062 -0.24179 0 0 0 2 2 2
0.987635 -0.35238 -0.225134 0 0 0 235 235 245
0.990591 -0.3537 -0.208373 0 0 0 250 251 253
0.994538 -0.355411 -0.191699 0 0 0 254 253 255
1.04807 -0.37671 -0.183688 0 0 0 200 200 198
0.951855 -0.338853 -0.149848 0 0 0 48 47 52
0.955803 -0.340561 -0.133652 0 0 0 69 65 56
0.966692 -0.345015 -0.118175 0 0 0 59 55 43
0.976589 -0.34908 -0.102204 0 0 0 64 57 51
0.987477 -0.353541 -0.0859663 0 0 0 70 61 53
0.998365 -0.358004 -0.0693393 0 0 0 64 60 48
1.01024 -0.362864 -0.0523751 0 0 0 56 51 49
1.02113 -0.367334 -0.0349518 0 0 0 60 60 56
1.034 -0.372594 -0.0171727 0 0 0 60 56 47
1.76469 -0.662789 0.0329721 0 0 0 38 37 35
1.78944 -0.672886 0.0651493 0 0 0 39 39 37
1.81518 -0.683385 0.0982652 0 0 0 48 47 42
1.82307 -0.686804 0.131011 0 0 0 53 48 42
1.85972 -0.701649 0.166632 0 0 0 54 50 41
1.87654 -0.708623 0.201422 0 0 0 58 54 45
1.89434 -0.715996 0.236937 0 0 0 54 49 43
1.91314 -0.723769 0.273233 0 0 0 38 40 27
1.94086 -0.735099 0.311642 0 0 0 43 43 35
1.97056 -0.747226 0.351397 0 0 0 63 56 48
2.00323 -0.760546 0.392802 0 0 0 60 56 45
2.03392 -0.773086 0.434947 0 0 0 41 36 32
2.05469 -0.781684 0.475881 0 0 0 41 36 32
2.10124 -0.800565 0.524022 0 0 0 49 44 41
2.124 -0.809971 0.567435 0 0 0 52 39 36
2.10611 -0.803165 0.600017 0 0 0 67 63 59
2.08922 -0.79675 0.632264 0 0 0 57 52 47
2.03764 -0.776475 0.652729 0 0 0 55 54 49
2.01084 -0.766084 0.679781 0 0 0 65 65 63
1.98305 -0.75529 0.705523 0 0 0 77 77 75
1.94534 -0.740524 0.726549 0 0 0 93 93 91
1.91062 -0.726937 0.747401 0 0 0 76 75 82
1.87688 -0.713735 0.767422 0 0 0 87 87 89
1.84414 -0.700921 0.786664 0 0 0 102 101 107
1.80149 -0.684128 0.800306 0 0 0 92 91 98
1.77073 -0.672086 0.817958 0 0 0 84 84 86
1.73304 -0.657255 0.831162 0 0 0 86 88 87
1.70427 -0.645989 0.847489 0 0 0 93 91 102
2.90435 -1.15472 -1.40718 0 0 0 249 255 255
2.71316 -1.07667 -1.2654 0 0 0 251 255 255
2.50825 -0.992918 -1.12433 0 0 0 254 255 255
1.49371 -0.576616 -0.613728 0 0 0 141 142 147
1.40547 -0.540561 -0.552016 0 0 0 137 135 146
1.32801 -0.508914 -0.49757 0 0 0 133 133 135
1.2633 -0.482488 -0.45051 0 0 0 131 131 133
1.20741 -0.459675 -0.408806 0 0 0 134 134 136
1.14662 -0.434826 -0.367531 0 0 0 131 130 136
1.10054 -0.416016 -0.332951 0 0 0 138 139 144
1.0574 -0.398405 -0.300882 0 0 0 133 131 145
1.01916 -0.382801 -0.271694 0 0 0 131 131 133
0.983858 -0.368398 -0.244628 0 0 0 92 92 92
0.987758 -0.370162 -0.228007 0 0 0 236 237 242
0.990678 -0.371523 -0.211034 0 0 0 248 249 254
0.993597 -0.372884 -0.193954 0 0 0 254 255 255
1.05825 -0.399753 -0.187869 0 0 0 193 195 194
0.948484 -0.354549 -0.151233 0 0 0 74 75 79
0.952384 -0.356311 -0.134896 0 0 0 72 63 65
0.966082 -0.362126 -0.119648 0 0 0 68 60 54
0.972921 -0.365108 -0.103167 0 0 0 60 64 52
0.984658 -0.37012 -0.0868769 0 0 0 63 63 55
0.995416 -0.37473 -0.0700919 0 0 0 62 54 52
1.00715 -0.379749 -0.05297 0 0 0 53 53 45
1.02183 -0.385989 -0.0355273 0 0 0 53 48 41
1.03748 -0.39264 -0.0175706 0 0 0 54 49 45
1.76238 -0.693753 0.0331051 0 0 0 41 41 33
1.77802 -0.700522 0.0652901 0 0 0 42 40 36
1.80345 -0.711365 0.0985798 0 0 0 48 43 39
1.83084 -0.723029 0.132933 0 0 0 56 51 47
1.85628 -0.733886 0.168099 0 0 0 50 50 42
1.87485 -0.741902 0.203436 0 0 0 58 54 42
1.90322 -0.753996 0.240692 0 0 0 53 48 42
1.91004 -0.757133 0.275843 0 0 0 5 5 5
1.95016 -0.774134 0.316683 0 0 0 58 53 44
1.98244 -0.787884 0.357552 0 0 0 51 51 43
2.00199 -0.79634 0.397049 0 0 0 49 49 41
2.03329 -0.809699 0.439811 0 0 0 37 36 34
2.06753 -0.824293 0.484398 0 0 0 42 37 33
2.08903 -0.833587 0.526994 0 0 0 55 50 44
2.12425 -0.848608 0.574094 0 0 0 49 44 38
2.12028 -0.847291 0.611113 0 0 0 68 62 54
2.06442 -0.824304 0.632006 0 0 0 54 53 49
2.02521 -0.808254 0.656309 0 0 0 60 59 57
2.00852 -0.801601 0.686947 0 0 0 69 68 66
1.97028 -0.785939 0.70918 0 0 0 72 72 72
1.93401 -0.771085 0.730778 0 0 0 80 80 82
1.90949 -0.761135 0.755747 0 0 0 81 81 83
1.86441 -0.742573 0.771268 0 0 0 86 86 85
1.84087 -0.733015 0.794521 0 0 0 101 101 99
1.80852 -0.719759 0.812936 0 0 0 5 4 9
1.75953 -0.69952 0.822349 0 0 0 87 86 95
1.73893 -0.691167 0.84387 0 0 0 101 101 98
1.70169 -0.675829 0.856211 0 0 0 95 93 104
1.68109 -0.66746 0.875945 0 0 0 96 96 98
2.7919 -1.1607 -1.31858 0 0 0 249 255 255
2.55267 -1.05842 -1.15867 0 0 0 254 255 255
1.5223 -0.616463 -0.633421 0 0 0 139 139 147
1.42447 -0.574652 -0.566573 0 0 0 134 134 136
1.34311 -0.539889 -0.509607 0 0 0 132 132 134
1.27046 -0.508851 -0.458793 0 0 0 132 131 137
1.21525 -0.485291 -0.416675 0 0 0 132 132 134
1.16294 -0.462965 -0.377529 0 0 0 135 136 141
1.11644 -0.443125 -0.342094 0 0 0 136 137 142
1.06511 -0.421185 -0.306947 0 0 0 136 135 141
1.02539 -0.404237 -0.276852 0 0 0 136 136 138
0.982776 -0.386024 -0.247468 0 0 0 137 137 137
0.986628 -0.387843 -0.230653 0 0 0 241 242 247
0.988544 -0.388827 -0.213274 0 0 0 245 246 251
0.999172 -0.393572 -0.19757 0 0 0 254 254 255
1.04562 -0.413787 -0.188001 0 0 0 186 186 186
0.951679 -0.373525 -0.136564 0 0 0 59 57 50
0.962307 -0.378272 -0.120754 0 0 0 68 64 55
0.972935 -0.383021 -0.104554 0 0 0 62 57 51
0.986466 -0.38903 -0.0882289 0 0 0 61 57 50
0.998061 -0.394205 -0.0712678 0 0 0 65 58 52
1.00772 -0.398546 -0.0537769 0 0 0 59 54 48
1.02125 -0.404567 -0.0360712 0 0 0 50 50 44
1.03284 -0.409753 -0.0178359 0 0 0 51 44 38
1.75963 -0.725216 0.0332335 0 0 0 38 38 30
1.78475 -0.736397 0.066113 0 0 0 40 39 34
1.82149 -0.752625 0.100557 0 0 0 48 42 38
1.83694 -0.759622 0.134776 0 0 0 53 48 42
1.85432 -0.767465 0.169738 0 0 0 52 46 51
1.88331 -0.780357 0.20662 0 0 0 54 47 42
1.90069 -0.788212 0.243069 0 0 0 49 44 38
1.91904 -0.796492 0.280297 0 0 0 4 4 2
1.949 -0.809829 0.320117 0 0 0 54 48 46
1.98089 -0.824016 0.36139 0 0 0 53 48 42
2.00117 -0.83316 0.401486 0 0 0 42 41 36
2.03306 -0.847365 0.444882 0 0 0 44 39 35
2.06785 -0.862844 0.490138 0 0 0 44 43 38
2.10264 -0.878333 0.536668 0 0 0 47 42 36
2.12581 -0.888773 0.581279 0 0 0 54 47 39
2.09481 -0.875596 0.610848 0 0 0 65 59 59
2.05316 -0.857767 0.635968 0 0 0 58 57 56
2.02506 -0.845836 0.664035 0 0 0 58 57 52
1.98439 -0.828406 0.686696 0 0 0 65 65 65
1.9592 -0.817723 0.713543 0 0 0 84 84 86
1.93304 -0.80661 0.739098 0 0 0 79 79 79
1.88656 -0.786611 0.755508 0 0 0 87 87 89
1.8517 -0.771673 0.775112 0 0 0 92 90 92
1.81877 -0.75757 0.794291 0 0 0 95 95 97
1.79648 -0.748113 0.817141 0 0 0 7 8 2
1.75679 -0.731028 0.830883 0 0 0 96 96 98
1.73547 -0.721978 0.852265 0 0 0 101 100 106
1.69771 -0.705719 0.864434 0 0 0 99 98 104
1.67833 -0.6975 0.884985 0 0 0 99 99 101
2.85071 -1.24005 -1.36351 0 0 0 249 255 255
2.57996 -1.11909 -1.18595 0 0 0 251 255 255
1.54593 -0.655855 -0.6515 0 0 0 136 141 152
1.3651 -0.575143 -0.524621 0 0 0 136 136 138
1.29047 -0.541835 -0.47203 0 0 0 134 134 134
1.23593 -0.517531 -0.42925 0 0 0 132 132 134
1.17757 -0.49149 -0.387216 0 0 0 134 134 136
1.11729 -0.464571 -0.34674 0 0 0 139 138 143
1.07232 -0.444518 -0.313016 0 0 0 134 133 139
1.03118 -0.426173 -0.282015 0 0 0 136 136 138
0.990996 -0.408246 -0.252784 0 0 0 131 131 131
0.986194 -0.406243 -0.233532 0 0 0 241 241 251
0.988086 -0.407255 -0.21594 0 0 0 240 241 246
0.992847 -0.409561 -0.19886 0 0 0 254 255 255
1.05211 -0.436445 -0.191661 0 0 0 179 179 179
0.950714 -0.39103 -0.138235 0 0 0 62 57 51
0.962168 -0.396354 -0.122355 0 0 0 68 63 57
0.971709 -0.400818 -0.105839 0 0 0 72 65 59
0.985074 -0.407013 -0.0893205 0 0 0 69 61 58
0.998439 -0.413212 -0.0723067 0 0 0 63 58 54
1.00989 -0.41855 -0.0546922 0 0 0 62 58 47
1.02134 -0.423892 -0.036653 0 0 0 57 51 51
1.03662 -0.430968 -0.0182578 0 0 0 55 50 46
1.76598 -0.761508 0.0335392 0 0 0 40 40 32
1.79176 -0.773468 0.0669646 0 0 0 43 42 37
1.80893 -0.781538 0.100863 0 0 0 50 45 39
1.8347 -0.793513 0.136041 0 0 0 42 41 37
1.85282 -0.802029 0.171462 0 0 0 54 49 45
1.8805 -0.814885 0.208622 0 0 0 41 40 37
1.90054 -0.824281 0.245814 0 0 0 46 41 37
1.92917 -0.837587 0.285028 0 0 0 2 2 0
